15.66179085 104.47264862 10.07670784 0.728971 -0.026687 0.684025
15.04360580 105.33536530 10.53944016 0.689995 -0.018195 0.723585
15.59634209 105.42436981 10.16483879 0.719485 -0.015368 0.694338
15.04418945 106.05910492 10.57196426 0.685896 -0.009739 0.727634
15.56644249 106.09685516 10.21591377 0.715375 -0.006945 0.698706
15.10418415 106.92884827 10.56758499 0.683251 0.001380 0.730182
15.63320351 106.91914368 10.18595028 0.719425 -0.001381 0.694569
17.57352829 104.58654785 8.75308990 0.824741 -0.023485 0.565023
17.38046837 105.19354248 8.90106297 0.816907 -0.020734 0.576396
18.34151077 104.41764832 7.81901169 0.872333 -0.025697 0.488236
18.33479309 105.28211975 7.80151463 0.873769 -0.017502 0.486026
17.89530373 104.45507050 8.51915359 0.839505 -0.026106 0.542724
17.89963722 105.39800262 8.52961922 0.841224 -0.020518 0.540298
17.38707352 106.13088989 8.90981102 0.818460 -0.012339 0.574430
17.42699623 106.84992218 8.89138508 0.822468 -0.006820 0.568771
18.32767296 106.20700073 7.78212881 0.876858 -0.012048 0.480598
18.32307625 106.91773987 7.75857258 0.878738 -0.006647 0.477257
18.00524902 106.03350067 8.46261883 0.848133 -0.014975 0.529572
17.91537857 106.83938599 8.53904438 0.845741 -0.009503 0.533509
16.45800400 104.50926971 9.53293324 0.770809 -0.026580 0.636512
17.12938499 104.56805420 9.07311153 0.802272 -0.023637 0.596490
16.48056984 105.41534424 9.55320740 0.768018 -0.015277 0.640246
16.97851753 105.24935150 9.19172859 0.796033 -0.017997 0.604985
16.04710197 104.73500061 9.82468796 0.748971 -0.023799 0.662175
16.04927444 105.28706360 9.84831429 0.746285 -0.018134 0.665379
16.57047653 106.13775635 9.49878597 0.775274 -0.009674 0.631551
17.07446861 106.06179047 9.13424492 0.802739 -0.012392 0.596202
16.43502808 106.87329865 9.60706520 0.769006 -0.004142 0.639228
17.10387421 106.97824097 9.12624836 0.807008 -0.004110 0.590527
16.04603195 106.08120728 9.87616634 0.743604 -0.009729 0.668549
16.04322433 107.24160767 9.89491844 0.745961 0.001379 0.665988
15.11955261 107.78868866 10.56889629 0.687381 0.006943 0.726264
15.57453346 107.74446869 10.24015617 0.716738 0.004159 0.697330
15.06552124 108.38804626 10.61649895 0.685875 0.012521 0.727612
15.60379314 108.59886169 10.23137188 0.722192 0.012524 0.691579
15.17597389 109.48033905 10.55259228 0.695664 0.020996 0.718060
15.55140591 109.33115387 10.27970600 0.719451 0.018161 0.694305
15.14031982 110.13605499 10.58775616 0.695525 0.026697 0.718006
15.61758423 110.06296539 10.24252987 0.726299 0.023882 0.686964
17.37898064 107.71108246 8.93842506 0.822094 -0.001359 0.569351
17.29824257 108.46752930 9.00755119 0.819033 0.004088 0.573732
18.29590225 107.56919098 7.96450377 0.873026 -0.001329 0.487672
18.30583572 108.40219116 7.78508091 0.880452 0.006640 0.474089
17.87535858 107.79328918 8.58165455 0.846097 -0.001349 0.533028
18.05910110 108.54854584 8.46003723 0.855100 0.004040 0.518447
17.39053345 109.32490540 8.95335484 0.824976 0.012313 0.565033
17.49219322 110.11611176 8.89145088 0.831707 0.017813 0.554928
18.27714729 109.29226685 7.98281240 0.875729 0.012033 0.482654
18.27158356 110.12336731 7.95711565 0.877916 0.017424 0.478498
18.04239655 109.24829865 8.48217010 0.855541 0.009461 0.517649
17.84897232 110.07555389 8.63357925 0.848133 0.014975 0.529572
16.54153824 107.75801086 9.54301071 0.777500 0.001376 0.628881
17.07695007 107.71879578 9.15634060 0.806665 0.001365 0.591008
16.57058144 108.57603455 9.53385735 0.780158 0.009666 0.625507
16.95977783 108.62313843 9.25387287 0.801463 0.006874 0.598004
16.06984711 107.61439514 9.88109207 0.749912 0.004143 0.661525
16.05002213 108.64777374 9.91028500 0.748829 0.009725 0.662692
16.46483040 109.28810120 9.62038231 0.775472 0.015260 0.631198
17.07201004 109.38077545 9.18385792 0.809565 0.012370 0.586900
16.45193100 110.07427216 9.64101505 0.777010 0.020925 0.629141
17.02029037 110.07452393 9.23115540 0.807590 0.017946 0.589472
16.09156227 109.47785187 9.89229393 0.754091 0.018120 0.656519
16.13691139 109.98327637 9.86687756 0.758005 0.020939 0.651912
18.56997490 110.79370117 4.57776213 0.969464 0.035364 0.242671
18.51901054 111.61070251 4.59915066 0.968831 0.027889 0.246149
18.50549316 110.94011688 5.43222141 0.951678 0.039179 0.304588
18.45542145 111.83219147 5.36989498 0.952941 0.028801 0.301785
18.45896149 112.53218842 4.66276264 0.968033 0.018128 0.250166
18.45350456 113.38208771 4.73675776 0.963408 0.010907 0.267815
18.41653061 112.44080353 5.40008497 0.952344 0.023777 0.304099
18.42221832 112.40081787 5.34993744 0.953522 0.023682 0.300391
18.40292549 113.29113770 5.48354816 0.947587 0.013769 0.319200
18.42348480 113.44034576 5.24854374 0.952753 0.011151 0.303543
18.41584206 110.99304962 6.44311905 0.925449 0.035243 0.377228
18.44096947 110.92372894 6.20088005 0.932485 0.037611 0.359246
18.40263176 111.74299622 6.26438379 0.931358 0.035072 0.362411
18.41872025 111.51702118 6.22784424 0.932485 0.037611 0.359246
18.35197830 110.92730713 7.08232307 0.907111 0.030458 0.419787
18.34183502 111.73136139 7.10465145 0.907492 0.035874 0.418536
18.35287476 112.58097839 6.24767590 0.931736 0.027063 0.362127
18.36309624 113.42669678 6.19813013 0.929319 0.016710 0.368900
18.30332565 112.50172424 7.08308315 0.908118 0.030492 0.417602
18.30489540 113.30718231 7.04838562 0.905753 0.022413 0.423212
18.49477196 114.20497131 4.58452034 0.962384 -0.001208 0.271689
18.52197266 114.90444946 4.58011723 0.958429 -0.008568 0.285203
18.41745949 113.79699707 5.56182623 0.942977 0.008789 0.332742
18.44189644 114.19757843 5.41877174 0.943832 0.003740 0.330404
18.39730835 115.12309265 5.70884180 0.933535 -0.003800 0.358467
18.46812630 114.90328979 5.43355846 0.939235 -0.003772 0.343255
18.54197502 115.70469666 4.54164839 0.954996 -0.018580 0.296036
18.38849068 116.53099823 4.73483372 0.952859 -0.021175 0.302673
18.44442558 116.50234985 4.46711540 0.957185 -0.023527 0.288518
18.31768799 115.81987000 5.61489725 0.936344 -0.008869 0.350971
18.43447304 115.41130066 5.30847692 0.941107 -0.008795 0.337994
18.23076057 116.56040955 5.52694511 0.939071 -0.013940 0.343439
18.37993431 114.04755402 6.31007671 0.921622 0.009023 0.387984
18.42394638 114.42814636 5.84429741 0.931498 0.003802 0.363728
18.31188774 114.88550568 6.32139301 0.920197 0.003850 0.391437
18.41911507 114.65499878 5.93532181 0.927860 0.001273 0.372926
18.28593063 114.16201782 6.97913885 0.904337 0.014438 0.426574
18.18557739 114.91711426 6.94989491 0.906811 0.009133 0.421439
18.18815613 115.79028320 6.30432749 0.922805 -0.003840 0.385249
18.12232208 116.53434753 6.10504246 0.927997 -0.008960 0.372479
18.05566597 115.70096588 7.05225515 0.905843 0.003910 0.423596
17.94654846 116.42149353 7.09323025 0.906778 0.001297 0.421606
15.19211388 110.98086548 10.56258297 0.701070 0.032444 0.712354
15.61236000 110.79845428 10.25689983 0.727593 0.029554 0.685373
15.15534115 111.74551392 10.60012245 0.699458 0.038307 0.713646
15.71241379 111.63383484 10.19678879 0.735697 0.035302 0.676390
15.15521336 112.18513489 10.60655212 0.700797 0.041223 0.712169
15.70539951 112.51909637 10.21460724 0.737059 0.041184 0.674572
15.13660049 113.56349945 10.58892059 0.699723 0.029566 0.713802
15.61115265 113.28685760 10.26044655 0.730340 0.032491 0.682310
17.48845100 110.88642120 8.90525246 0.833302 0.023415 0.552321
17.45028687 111.65621185 8.94386959 0.832337 0.028987 0.553511
18.27497864 110.95602417 7.84250927 0.882845 0.025531 0.468970
18.26980019 111.73821259 7.81777048 0.884931 0.030979 0.464690
17.94093132 110.97792053 8.58027172 0.854364 0.023165 0.519159
18.02702332 111.74782562 8.52928543 0.858646 0.025937 0.511912
17.49131775 112.58685303 8.92769623 0.836002 0.034660 0.547630
17.48122787 113.15917206 8.91968632 0.835716 0.029008 0.548395
18.25896454 112.50118256 7.76534176 0.888735 0.033715 0.457179
18.24238586 113.33441925 7.80296612 0.883957 0.025563 0.466869
18.02204895 112.54753876 8.54439926 0.860120 0.034295 0.508938
17.98538971 113.40684509 8.52746296 0.861685 0.028677 0.506633
16.54076385 110.82437897 9.58776665 0.783175 0.026525 0.621235
17.00094414 110.86903381 9.25656033 0.809171 0.023595 0.587100
16.54063797 111.60496521 9.59911060 0.784689 0.032286 0.619048
17.04630470 111.66312408 9.23529434 0.811689 0.029238 0.583358
16.19116211 110.99449921 9.84233093 0.764543 0.029459 0.643899
16.11515045 111.61795044 9.90613174 0.759554 0.032411 0.649637
16.52106857 112.50903320 9.62625504 0.784819 0.038043 0.618556
17.10194588 112.63071442 9.20911598 0.816349 0.037678 0.576329
16.56199265 113.25517273 9.57713699 0.788256 0.029402 0.614644
17.15541077 113.21329498 9.15174961 0.819340 0.029114 0.572568
16.12211800 112.47827911 9.91350842 0.762100 0.041004 0.646159
16.18248177 113.28133392 9.84921837 0.765858 0.032321 0.642197
15.06908035 114.09351349 10.61203384 0.694305 0.018161 0.719451
15.63140106 114.11945343 10.20577621 0.730365 0.015361 0.682884
15.09776592 114.86669159 10.55414677 0.695951 0.001384 0.718088
15.55379105 114.97612000 10.22043037 0.724826 -0.001381 0.688930
15.90868187 116.89782715 9.81950760 0.759338 -0.023773 0.650262
15.10701180 115.67712402 10.50846958 0.694338 -0.015368 0.719485
15.56954002 115.63730621 10.17725372 0.724949 -0.015365 0.688631
15.05454350 116.63084412 10.50034237 0.688126 -0.032499 0.724863
15.51991177 116.43347931 10.17444134 0.720761 -0.029620 0.692551
17.45733643 114.15115356 8.87049484 0.838005 0.015038 0.545455
17.46829796 114.94329834 8.78170013 0.846941 0.012235 0.531547
18.10180855 114.10434723 7.97043371 0.881789 0.022816 0.471093
18.02889633 114.87591553 7.78772926 0.888085 0.017309 0.459354
17.92820168 114.07794952 8.50489426 0.865014 0.025801 0.501084
17.82674408 114.82261658 8.50995541 0.866480 0.020276 0.498800
17.36509132 115.70554352 8.78636742 0.848492 0.009473 0.529123
17.27756500 116.70270538 8.75485325 0.853906 0.004034 0.520412
17.90311623 115.72090149 7.82452011 0.887631 0.011941 0.460401
17.79593468 116.47643280 7.83017588 0.889867 0.006611 0.456172
17.79403496 115.63148499 8.45180893 0.872625 0.017479 0.488078
17.69449234 116.36788940 8.43190956 0.875103 0.012061 0.483786
16.49023438 114.05661774 9.59023476 0.782802 0.015240 0.622085
17.03240204 114.15406799 9.19505119 0.811811 0.012363 0.583790
16.54869080 114.97155762 9.50408077 0.784735 -0.004123 0.619817
17.08425713 114.94809723 9.08543968 0.822468 0.006820 0.568771
16.05748940 114.19905853 9.89505768 0.757919 0.012516 0.652228
16.12528610 114.60253906 9.82680130 0.761489 0.004146 0.648164
16.47352028 115.75531006 9.48760891 0.788720 -0.009669 0.614677
17.02643204 115.53392029 9.07199860 0.825507 0.001360 0.564391
16.45731544 116.54776001 9.42029953 0.797111 -0.012433 0.603705
16.95455551 116.53555298 9.02763748 0.831841 -0.001357 0.555013
16.01997375 115.45371246 9.86167336 0.752776 -0.012523 0.658157
4.49965715 91.61096191 13.82043934 0.289411 -0.144032 0.946306
4.57082939 92.27141571 13.82388496 0.285079 -0.135178 0.948924
5.24335241 91.70839691 13.67975044 0.302408 -0.142390 0.942483
6.01935148 91.72626495 13.53077412 0.315418 -0.143372 0.938060
5.13614416 92.59806061 13.72350216 0.294023 -0.132914 0.946512
6.09552097 92.58930969 13.53851891 0.312566 -0.133957 0.940403
4.77492094 93.36842346 13.81307220 0.282595 -0.123387 0.951271
4.78012037 93.79153442 13.82305908 0.281265 -0.120165 0.952077
5.41284990 93.37422943 13.69037247 0.295279 -0.124258 0.947296
6.00433064 93.27607727 13.57391644 0.305544 -0.127871 0.943553
5.33370876 94.12794495 13.72518635 0.287016 -0.115071 0.950989
6.13500214 94.07023621 13.56937695 0.302766 -0.118706 0.945644
5.25315762 94.91431427 13.76112175 0.281989 -0.106238 0.953517
6.07376432 94.84725952 13.60134983 0.297602 -0.109782 0.948357
5.29365921 95.73652649 13.77467537 0.276329 -0.097299 0.956125
6.00413704 95.71318817 13.63920116 0.289441 -0.098227 0.952143
5.27523279 96.38995361 13.79519463 0.272035 -0.091538 0.957924
6.03844833 96.58050537 13.74676514 0.287432 -0.092343 0.953339
5.46472359 96.99855804 13.82526779 0.270820 -0.085995 0.958781
6.08568144 97.15136719 13.81644917 0.283766 -0.086814 0.954956
1.38192308 91.61498260 14.42095184 0.232615 -0.136450 0.962949
1.31321740 92.55133057 14.45857143 0.222651 -0.127413 0.966536
0.22512400 91.60991669 14.82927608 0.042147 -0.135552 0.989873
0.37216052 92.53668213 14.78067970 0.068000 -0.123322 0.990034
2.05220366 91.62226868 14.29205894 0.244851 -0.137483 0.959764
2.79435492 91.79293823 14.15356922 0.257231 -0.138509 0.956372
2.08060503 92.39900970 14.30676174 0.240218 -0.128549 0.962170
2.84456515 92.47803497 14.16169167 0.253114 -0.129836 0.958685
0.79992491 92.91177368 14.62414646 0.144820 -0.120480 0.982096
1.24633956 93.18209076 14.48853493 0.211789 -0.117943 0.970173
1.25793922 94.14672089 14.51126289 0.207048 -0.106661 0.972499
0.46163493 93.31176758 14.75248623 0.082399 -0.114895 0.989954
0.28935656 94.15985107 14.82205200 0.052755 -0.102143 0.993370
2.03836894 93.32190704 14.33886337 0.232623 -0.119525 0.965194
2.77975321 93.39380646 14.19795704 0.244729 -0.120422 0.962084
2.05173039 94.05724335 14.35538769 0.228124 -0.110876 0.967298
2.78720784 93.93325043 14.21053123 0.241235 -0.114813 0.963651
3.56335902 91.55341339 13.99925518 0.273493 -0.142750 0.951222
4.43395042 91.67607880 13.83478355 0.288786 -0.141035 0.946949
3.61511564 92.58058167 14.01596451 0.265549 -0.130793 0.955184
4.48406458 92.50634766 13.84669590 0.283738 -0.131878 0.949790
3.57774878 93.42294312 14.04503727 0.260061 -0.121536 0.957913
4.31208324 93.32613373 13.90110588 0.273167 -0.122727 0.954106
3.54231691 94.16084290 14.07102489 0.255294 -0.112744 0.960268
4.41983414 94.13504791 13.90136337 0.271370 -0.114054 0.955694
1.21322048 94.80911255 14.53755474 0.197509 -0.100618 0.975124
1.27378786 95.62910461 14.54659081 0.196268 -0.090110 0.976401
0.29546124 94.88135529 14.82449341 0.052334 -0.092419 0.994344
0.39097500 95.64985657 14.79401302 0.070597 -0.084044 0.993958
2.00742006 94.86337280 14.38485718 0.220734 -0.102168 0.969968
2.80853558 94.95057678 14.23284435 0.235546 -0.103131 0.966376
2.01605892 95.64578247 14.40351295 0.216371 -0.093803 0.971794
2.95373607 95.55817413 14.22066116 0.234569 -0.095095 0.967437
1.30791879 96.49306488 14.56213188 0.194515 -0.081965 0.977469
1.32811892 97.33349609 14.57988644 0.190477 -0.071581 0.979078
0.31272981 96.44064331 14.82825661 0.055989 -0.073554 0.995718
0.88104844 96.62586975 14.65216064 0.144654 -0.074091 0.986704
0.41194931 97.20706177 14.79638386 0.074010 -0.062964 0.995268
1.08148897 97.36949158 14.63084221 0.162674 -0.067682 0.984356
2.15205693 96.36685944 14.39604950 0.212576 -0.085776 0.973373
2.79883718 96.40827942 14.27256966 0.226578 -0.086375 0.970155
2.11201692 97.22647858 14.42608452 0.207349 -0.074842 0.975400
2.85786200 97.29187775 14.28415012 0.219326 -0.075587 0.972719
3.61684799 94.98945618 14.07819080 0.250580 -0.104087 0.962484
4.38432264 95.03575134 13.93159485 0.263416 -0.105107 0.958939
3.68204808 95.75634003 14.08555222 0.245920 -0.095565 0.964568
4.33012486 95.70921326 13.95952129 0.258622 -0.096501 0.961146
4.88463736 94.83694458 13.83008099 0.275688 -0.108446 0.955110
4.98431015 95.67526245 13.83265877 0.270852 -0.097196 0.957702
3.57236671 96.57994843 14.12806320 0.238402 -0.084513 0.967482
4.33696556 96.37716675 13.97555161 0.253882 -0.088029 0.963221
3.56868982 97.39587402 14.14996147 0.233310 -0.076106 0.969420
4.22532320 97.13003540 14.01660442 0.246221 -0.079548 0.965944
5.04405069 96.49874115 13.84254074 0.265993 -0.088664 0.959889
5.21252823 97.35861206 13.88195515 0.264209 -0.080411 0.961108
5.99977207 97.29453278 13.83833981 0.283065 -0.086600 0.955183
6.74848032 91.61128998 13.38737392 0.329256 -0.147408 0.932664
7.44932079 91.75381470 13.25610828 0.341781 -0.145291 0.928481
6.92567253 92.45703125 13.37521458 0.327118 -0.138238 0.934818
7.63706541 92.38201904 13.23626804 0.340298 -0.139150 0.929965
8.57259750 91.50188446 13.01142693 0.361827 -0.146687 0.920633
9.29289436 91.60858917 12.61283875 0.398235 -0.145972 0.905594
9.23031712 92.56276703 12.82083988 0.390585 -0.142415 0.909484
8.32069969 91.76888275 13.08869171 0.358323 -0.149185 0.921601
8.45335770 92.60527039 13.13759518 0.356005 -0.139909 0.923951
8.95927238 92.78866577 13.04298878 0.372729 -0.140995 0.917166
6.85227346 93.27781677 13.41066551 0.320903 -0.128632 0.938336
7.58457708 93.36789703 13.27277470 0.333937 -0.129486 0.933659
6.68935871 94.01416016 13.46116352 0.313151 -0.119616 0.942140
7.64544249 94.07667542 13.35919285 0.332472 -0.123490 0.934993
9.43590450 93.31615448 12.79639053 0.401415 -0.136622 0.905649
9.37308598 94.01839447 12.94911480 0.392936 -0.130046 0.910324
8.37297249 93.41239166 13.24276543 0.351144 -0.133572 0.926745
8.96510696 93.28575134 13.11639977 0.368712 -0.134963 0.919694
8.41391563 94.11130524 13.32884407 0.347199 -0.127627 0.929066
8.91671276 94.32982635 13.31242180 0.359526 -0.128107 0.924299
11.10912037 91.57373810 11.30348396 0.509085 -0.132741 0.850419
10.14100361 91.71838379 12.03862190 0.450120 -0.142370 0.881545
10.73033047 91.70848846 11.61418343 0.485928 -0.137801 0.863067
10.19875813 92.45922852 12.13456917 0.451264 -0.142732 0.880902
10.77103424 92.54454803 11.75168800 0.487148 -0.138146 0.862324
11.63508034 91.77719116 10.98732853 0.538508 -0.133527 0.831973
12.05468178 91.63359833 10.64482880 0.566876 -0.125155 0.814241
11.70434284 92.56884766 11.10909367 0.539826 -0.133853 0.831067
12.15848732 92.47856140 10.78025913 0.565582 -0.134381 0.813670
11.27023125 92.74632263 11.43784046 0.515728 -0.135872 0.845910
10.32074833 93.26895142 12.17813969 0.459639 -0.136883 0.877493
10.81998348 93.24167633 11.82803822 0.489555 -0.135100 0.861443
10.90535259 94.03942871 11.89508152 0.494332 -0.129019 0.859645
11.70487118 93.18371582 11.20597267 0.542116 -0.130754 0.830069
12.20573044 93.37895203 10.88994026 0.570019 -0.128144 0.811577
11.90899467 93.98427582 11.19120407 0.553205 -0.127663 0.823205
12.38038921 94.16201019 10.89281178 0.579103 -0.122304 0.806028
11.35717392 93.40007019 11.48101711 0.521483 -0.132927 0.842844
11.45730972 94.24790955 11.54575157 0.527406 -0.127103 0.840052
9.80092144 91.67832947 12.27004814 0.428135 -0.144621 0.892068
9.87385559 92.44023132 12.35660267 0.432972 -0.141466 0.890237
9.96319771 93.25343323 12.42290974 0.435464 -0.138492 0.889489
9.95563221 94.17199707 12.57121944 0.430348 -0.129246 0.893362
10.41426277 94.16452026 12.25370407 0.461099 -0.130717 0.877668
6.86945248 94.89670563 13.49740314 0.311074 -0.110812 0.943903
7.56141949 94.90928650 13.46773529 0.327042 -0.114398 0.938060
6.74617434 95.69261932 13.60310078 0.305745 -0.104562 0.946354
7.63452053 95.68773651 13.56236649 0.325592 -0.108531 0.939261
9.54040909 94.91719055 12.97371101 0.398068 -0.121516 0.909272
8.33236694 94.83065033 13.42302418 0.342390 -0.121405 0.931681
9.03767300 94.98105621 13.33043385 0.362171 -0.122560 0.924019
8.35774612 95.77531433 13.54072094 0.339260 -0.112186 0.933979
9.20951653 95.71190643 13.32575035 0.369560 -0.116776 0.921840
6.61649799 96.41670990 13.70005226 0.298172 -0.095888 0.949684
7.63747025 96.58797455 13.67548752 0.321032 -0.099906 0.941784
6.85497284 97.37560272 13.80991554 0.299217 -0.090157 0.949916
7.60558414 97.41219330 13.78061771 0.315627 -0.093764 0.944239
8.51251316 96.44702911 13.61823750 0.338605 -0.106573 0.934874
9.10068417 96.55542755 13.53221989 0.357270 -0.107317 0.927815
8.34733200 97.23798370 13.72520351 0.333118 -0.097661 0.937814
9.28085423 97.29731750 13.52351284 0.363114 -0.101998 0.926145
10.88391876 94.84103394 12.03513241 0.488822 -0.122566 0.863730
11.04522419 95.81937408 12.07627201 0.492311 -0.116260 0.862620
11.90892601 94.82101440 11.32358742 0.554305 -0.121391 0.823414
12.38527679 94.92317200 11.00981140 0.579888 -0.118914 0.805971
11.96465397 95.67435455 11.41948414 0.556711 -0.115434 0.822647
12.45003033 95.73802948 11.09383583 0.585538 -0.112999 0.802730
11.47032547 95.01518250 11.65777493 0.528598 -0.120864 0.840224
11.41975117 95.84302521 11.82161903 0.519610 -0.114343 0.846718
12.04057407 96.06961060 11.42868900 0.558909 -0.112365 0.821581
11.08811569 96.45977783 12.14644718 0.493581 -0.110162 0.862694
11.18305397 97.12778473 12.18501949 0.494825 -0.104099 0.862735
12.40008545 96.43430328 11.23751926 0.579674 -0.109510 0.807456
12.55873871 97.18123627 11.24443817 0.583894 -0.103383 0.805220
11.59425735 96.53184509 11.80854988 0.526243 -0.108132 0.843431
12.07168293 96.54375458 11.48109055 0.556416 -0.108959 0.823729
11.52578926 97.21555328 11.96228409 0.517294 -0.101739 0.849738
12.21434975 97.25599670 11.49363518 0.562090 -0.103122 0.820622
9.97544289 94.89833832 12.67070103 0.427396 -0.122718 0.895697
10.52133751 94.81547546 12.28125000 0.464778 -0.124417 0.876642
10.05483532 95.64420319 12.73212719 0.426605 -0.116859 0.896857
10.62096214 95.76665497 12.36070251 0.465163 -0.115224 0.877694
9.68868542 95.98982239 13.03852558 0.401115 -0.112423 0.909103
10.09912014 96.37819672 12.81591797 0.424730 -0.110738 0.898522
10.58890724 96.56311035 12.50688362 0.457530 -0.109071 0.882480
10.23920822 97.26909637 12.85807133 0.428616 -0.101918 0.897720
10.81662560 97.26548004 12.45921993 0.467856 -0.103183 0.877761
9.73046017 96.60113525 13.10493946 0.400228 -0.109405 0.909861
9.87292004 97.33412933 13.12085629 0.405218 -0.100959 0.908629
11.21815300 97.55867004 12.22793102 0.493754 -0.101027 0.863713
6.75043917 97.53909302 13.83520508 0.296167 -0.087415 0.951128
7.25527954 97.67558289 13.82957554 0.308689 -0.088009 0.947083
1.33671284 98.08730316 14.59774780 0.186016 -0.063606 0.980486
1.30003214 98.88766479 14.62599182 0.176648 -0.053350 0.982827
0.38080242 98.14011383 14.81405258 0.068600 -0.051178 0.996331
1.15101838 98.19210815 14.63812923 0.163910 -0.060140 0.984640
0.28553113 98.84576416 14.85406780 0.050054 -0.041534 0.997883
1.11854720 98.90333557 14.66320705 0.154929 -0.050090 0.986655
2.12394619 98.04418945 14.44502449 0.200378 -0.064364 0.977602
2.88441610 98.09368134 14.29986000 0.214490 -0.067411 0.974397
1.90320241 99.01403046 14.51272202 0.190304 -0.053860 0.980247
2.76989555 98.90148926 14.34289360 0.206958 -0.056883 0.976695
1.39027262 99.48674011 14.62377834 0.178157 -0.048374 0.982812
1.52198875 100.44236755 14.62323093 0.173539 -0.036105 0.984165
0.29693273 99.73025513 14.85560513 0.051758 -0.030632 0.998190
1.18961871 99.64717102 14.66813278 0.158794 -0.042886 0.986380
0.35734931 100.50046539 14.85911369 0.055631 -0.022042 0.998208
1.11782885 100.64343262 14.70859623 0.141991 -0.030670 0.989393
2.02051234 99.56753540 14.50450611 0.189020 -0.048741 0.980763
2.78153324 99.71883392 14.36187935 0.202345 -0.046695 0.978200
2.04143000 100.59679413 14.52720833 0.181550 -0.036310 0.982711
2.77995896 100.51882172 14.38938713 0.195510 -0.039102 0.979922
3.59713697 98.02418518 14.16080093 0.229404 -0.068201 0.970939
4.43072462 98.30242920 14.03600025 0.243432 -0.068660 0.967485
3.55259514 98.83625031 14.19046879 0.221592 -0.059989 0.973292
4.40579510 99.02976227 14.12862873 0.239459 -0.060795 0.969001
5.25203848 98.13216400 13.97748661 0.262381 -0.074785 0.962062
6.10661030 98.16390991 13.94288540 0.281161 -0.078314 0.956460
5.24588394 99.01991272 14.08944798 0.257638 -0.066609 0.963943
6.04550743 98.99003601 14.04957676 0.276232 -0.070013 0.958538
3.51858807 99.67522430 14.24989986 0.216791 -0.049656 0.974954
4.49088764 99.72052002 14.21168613 0.237811 -0.055448 0.969727
3.67337108 100.50490570 14.34728622 0.215821 -0.044611 0.975413
4.38066530 100.47268677 14.31129074 0.231027 -0.047672 0.971779
5.35057926 99.64281464 14.16308403 0.256477 -0.061304 0.964604
6.18395805 99.72770691 14.13612652 0.274984 -0.064627 0.959274
5.21469402 100.51386261 14.27880383 0.248887 -0.053244 0.967068
6.10115147 100.62728119 14.25303841 0.267799 -0.056577 0.961812
0.26465595 101.31287384 14.89903641 0.037919 -0.011273 0.999217
1.06435537 101.32411194 14.73713875 0.130737 -0.023466 0.991139
0.34655106 102.13657379 14.90384293 0.041757 -0.003055 0.999123
1.33694327 102.18364716 14.70420265 0.155358 -0.017010 0.987712
2.15988469 101.37387085 14.52496147 0.177697 -0.026713 0.983723
2.71680355 101.29316711 14.48965645 0.191497 -0.031720 0.980981
1.90028799 102.01571655 14.61743259 0.168645 -0.019503 0.985484
3.00076246 101.98225403 14.56352234 0.193785 -0.027013 0.980672
1.63312101 101.52922821 14.63005543 0.166775 -0.024154 0.985699
2.00776672 102.28556824 14.64652824 0.170873 -0.019496 0.985100
2.78864622 102.42842102 14.62923241 0.187120 -0.022082 0.982089
0.38991818 102.87229919 14.89590931 0.041843 0.003062 0.999120
1.12674594 102.87723541 14.74760914 0.126605 -0.007706 0.991923
0.36492008 103.75489807 14.87586975 0.033619 0.009169 0.999393
1.15752637 103.72288513 14.71740437 0.125784 -0.003281 0.992052
3.20548582 102.91558838 14.62657356 0.189371 -0.019750 0.981707
2.88839912 103.72444916 14.62510014 0.164574 -0.010215 0.986312
2.05298972 102.86333466 14.67639256 0.164934 -0.014787 0.986194
2.83621955 102.80369568 14.64429092 0.184043 -0.019678 0.982721
2.03454995 103.61787415 14.66326046 0.148609 -0.007822 0.988865
2.69329071 103.75116730 14.63287830 0.161640 -0.010173 0.986797
3.61497736 101.30019379 14.44997501 0.211589 -0.037058 0.976656
4.18948841 101.21609497 14.41345024 0.223797 -0.039920 0.973818
3.68154430 102.18675995 14.55850410 0.207413 -0.029630 0.977805
4.52042675 102.04341125 14.50258350 0.227891 -0.034967 0.973059
5.31418514 101.23852539 14.36547661 0.247791 -0.045613 0.967739
6.06450272 101.28277588 14.33715630 0.265940 -0.051190 0.962629
5.31093311 102.11734772 14.47618294 0.243224 -0.037889 0.969230
6.09286070 102.20439911 14.45182133 0.261194 -0.043326 0.964314
3.63059354 102.77103424 14.61121845 0.201028 -0.024688 0.979274
4.39287043 102.94535065 14.57568932 0.215212 -0.027347 0.976184
3.56177020 103.88719177 14.59355354 0.177962 -0.012630 0.983956
4.41270113 103.80175781 14.55905724 0.197878 -0.019905 0.980024
3.27298713 102.64141083 14.62876797 0.195617 -0.022256 0.980428
5.26307678 102.91731262 14.53931713 0.235855 -0.032657 0.971239
5.89642143 103.00296783 14.51089001 0.247838 -0.035405 0.968154
5.17849445 103.60675812 14.53018951 0.220265 -0.025003 0.975120
5.92572260 103.70189667 14.49675846 0.235337 -0.027758 0.971517
7.59808064 97.75817108 13.82448387 0.314918 -0.090918 0.944754
8.49645233 98.08439636 13.82495117 0.331621 -0.091895 0.938927
9.22331524 98.06781006 13.68322659 0.354974 -0.095830 0.929952
9.39967823 98.76264191 13.66981506 0.362203 -0.090214 0.927723
9.46714306 99.71763611 13.77204418 0.360650 -0.081783 0.929109
9.52783871 100.21475220 13.80761719 0.362231 -0.076189 0.928969
12.64589596 98.04492188 11.31886292 0.584944 -0.094346 0.805568
12.64961529 98.69389343 11.41739178 0.582524 -0.088174 0.808017
11.78740406 98.13753510 11.92545223 0.528597 -0.093113 0.843750
12.32656765 98.16152191 11.55728817 0.563851 -0.093735 0.820540
11.73790264 98.88975525 12.07677555 0.519653 -0.086846 0.849952
12.28230286 98.81545258 11.68968868 0.556207 -0.087671 0.826406
11.76919270 99.69235992 12.18021870 0.517392 -0.080798 0.851925
12.36085033 99.69474792 11.77248287 0.555821 -0.081444 0.827302
11.89848518 100.48644257 12.21473598 0.520504 -0.074761 0.850580
12.44862080 100.47615051 11.83366489 0.556845 -0.072632 0.827435
10.25756264 98.07439423 12.97085762 0.425646 -0.095666 0.899819
10.63773251 98.03606415 12.70265579 0.452388 -0.096640 0.886569
10.35453033 98.85201263 13.02510643 0.427068 -0.089836 0.899746
10.91342449 98.88815308 12.64522648 0.463870 -0.088289 0.881493
9.95245743 98.08395386 13.18280029 0.403407 -0.095000 0.910076
10.00595951 98.88807678 13.27115822 0.403892 -0.088993 0.910468
11.22361469 98.21863556 12.32697105 0.489455 -0.095054 0.866832
11.30064392 99.00028229 12.39560127 0.489580 -0.086065 0.867700
10.91632938 99.67799377 12.76626205 0.460671 -0.082114 0.883765
10.96214199 100.50053406 12.86279392 0.457586 -0.073269 0.886141
10.00191689 99.73480988 13.40584946 0.395601 -0.080208 0.914913
10.53928185 99.73896027 13.03583527 0.434119 -0.081311 0.897179
10.09951401 100.56193542 13.46737576 0.397072 -0.074536 0.914756
10.57204437 100.48879242 13.13004398 0.432166 -0.075458 0.898631
11.54826736 99.67111206 12.32929802 0.502857 -0.080288 0.860633
11.48285103 100.49105835 12.50214863 0.494019 -0.074173 0.866282
12.49441147 101.19757843 11.91446209 0.556408 -0.066542 0.828241
12.53036118 101.96178436 12.00870991 0.554005 -0.060616 0.830303
12.54074574 102.84175873 12.13862705 0.548438 -0.051898 0.834579
12.68668747 103.75090027 12.08195305 0.552001 -0.040322 0.832868
11.03094196 101.28199005 12.93707085 0.456645 -0.067600 0.887077
11.08838272 102.06759644 13.01982880 0.456755 -0.061724 0.887449
10.06046391 101.28878021 13.60753727 0.391046 -0.068534 0.917816
10.68854713 101.30113983 13.17622757 0.433580 -0.067020 0.898619
10.14284992 102.06484222 13.67160225 0.391593 -0.060142 0.918171
10.65934372 102.05720520 13.31414986 0.427288 -0.061041 0.902053
11.48606205 101.35433960 12.63441277 0.488616 -0.065427 0.870042
11.48447800 102.00764465 12.73727512 0.483135 -0.059527 0.873520
12.08463764 102.08242035 12.33494854 0.522598 -0.060246 0.850448
11.21392727 102.60573578 13.01706314 0.461229 -0.056114 0.885505
10.24748039 102.88962555 13.71373844 0.393010 -0.054622 0.917911
10.72026539 102.93785858 13.39205456 0.424365 -0.052540 0.903965
10.15024853 103.80851746 13.82214832 0.379863 -0.043375 0.924025
10.82294559 103.74563599 13.35845947 0.424671 -0.044209 0.904268
11.68242741 102.81409454 12.72636127 0.490795 -0.053918 0.869605
12.19266701 103.10852814 12.39115715 0.524484 -0.048692 0.850027
11.74764442 103.72077179 12.72386932 0.488455 -0.042415 0.871557
12.16666412 103.77080536 12.43909836 0.517733 -0.040038 0.854605
11.27784348 103.90635681 13.05414677 0.455997 -0.041946 0.888992
6.79499769 98.06282043 13.89907932 0.294833 -0.081826 0.952039
7.61255741 98.26173401 13.88718128 0.313502 -0.085262 0.945752
6.84918118 99.05425262 14.02135849 0.292836 -0.073532 0.953331
7.63111019 98.84741211 13.96002388 0.309727 -0.079719 0.947478
8.36475849 98.22755432 13.84890842 0.327683 -0.088886 0.940597
9.02563572 98.39899445 13.84062862 0.341250 -0.092338 0.935426
8.35140991 98.93063354 13.93796253 0.326203 -0.083202 0.941631
9.05364513 98.83401489 13.89409256 0.339631 -0.089236 0.936316
6.91631413 99.54347992 14.07987595 0.291456 -0.070617 0.953974
7.56074953 99.73956299 14.07543850 0.304518 -0.071270 0.949837
6.88782215 100.55244446 14.20809460 0.286438 -0.062380 0.956066
7.64051819 100.41992188 14.15742874 0.303132 -0.065786 0.950675
8.42692947 99.85842896 14.05127239 0.323922 -0.077374 0.942914
9.05993652 99.73355103 14.00697422 0.337334 -0.080696 0.937920
8.34849930 100.37481689 14.11977959 0.319322 -0.071684 0.944931
9.20645809 100.40631866 14.05913925 0.338975 -0.075181 0.937787
6.92424393 101.27216339 14.29699326 0.284486 -0.054368 0.957137
7.56318665 101.30702209 14.27252197 0.297999 -0.057553 0.952830
6.80861187 102.00748444 14.39472294 0.277207 -0.048919 0.959564
7.57088089 102.08330536 14.36983490 0.293597 -0.052110 0.954508
8.42650890 101.27310944 14.22926521 0.314813 -0.063481 0.947029
9.20339775 101.27490997 14.19440556 0.331187 -0.066761 0.941200
8.44906902 102.17498779 14.34170723 0.312654 -0.055326 0.948255
9.18017769 102.27964783 14.32185459 0.328112 -0.058360 0.942835
6.80437899 103.00018311 14.47245121 0.268788 -0.038398 0.962434
7.57857513 102.89886475 14.44149971 0.287877 -0.043999 0.956656
6.74408436 103.73195648 14.46151352 0.253031 -0.033004 0.966895
7.65663910 103.75949097 14.42232037 0.271731 -0.038464 0.961604
8.47405624 102.76903534 14.40593338 0.308152 -0.049867 0.950029
9.17466736 102.84321594 14.37486649 0.324298 -0.052973 0.944470
8.39878464 103.57430267 14.39427471 0.291580 -0.044179 0.955526
9.14466381 103.66357422 14.36788654 0.315911 -0.044765 0.947732
9.66440201 101.33135223 13.88736153 0.362959 -0.067806 0.929335
9.82081223 102.21128082 13.91654682 0.366846 -0.059596 0.928371
9.79214954 102.93714905 14.02782249 0.361097 -0.053836 0.930973
9.91324615 103.69906616 13.97952652 0.364061 -0.043061 0.930379
12.93173981 94.88336945 10.62501717 0.611600 -0.116425 0.782554
13.05033302 95.70007324 10.67204475 0.618912 -0.110258 0.777683
13.09428501 96.57121277 10.77937889 0.620919 -0.107156 0.776516
13.12322807 97.20608521 10.85894012 0.621683 -0.100932 0.776738
13.11408615 98.25267792 11.02828121 0.614777 -0.091563 0.783368
13.67806435 98.19747162 10.63066483 0.649595 -0.091965 0.754698
13.27506924 98.95639038 11.02686214 0.620093 -0.085680 0.779836
13.73414040 98.97335052 10.71284866 0.647233 -0.082904 0.757771
13.29234791 99.72990417 11.13543797 0.616191 -0.079369 0.783587
13.89288044 99.82514954 10.73604488 0.652561 -0.076687 0.753846
13.35769653 100.58838654 11.22409439 0.615595 -0.070313 0.784920
13.92184353 100.58689117 10.83472824 0.649997 -0.070621 0.756648
12.83139515 99.68753815 11.44679070 0.588634 -0.079156 0.804515
12.97594166 100.56710815 11.48410416 0.591395 -0.070166 0.803324
13.43184280 101.22739410 11.27249432 0.617611 -0.064484 0.783836
13.97536755 101.30363464 10.90946198 0.650495 -0.064619 0.756757
13.56684971 102.13348389 11.32051659 0.620072 -0.055593 0.782573
14.05989265 102.18392944 10.98828793 0.649664 -0.055685 0.758179
13.04135704 101.49066162 11.58284950 0.590766 -0.064059 0.804296
13.04635811 102.10926819 11.67576408 0.586414 -0.058215 0.807917
14.47006416 102.10994720 10.69384003 0.675252 -0.055913 0.735465
14.02502823 102.82637024 11.11241341 0.643994 -0.049757 0.763410
14.00744724 103.61908722 11.17117882 0.638391 -0.041050 0.768617
13.14013767 102.78936768 11.71702194 0.588962 -0.052258 0.806469
13.15731621 103.72909546 11.75856018 0.583933 -0.040609 0.810785
14.60210419 103.02816010 10.73692894 0.677233 -0.047050 0.734263
14.56028938 103.71688843 10.79690552 0.670274 -0.038261 0.741127
0.40355623 104.47665405 14.84760189 0.033686 0.013270 0.999344
1.10421538 104.53623962 14.70502472 0.116148 0.003256 0.993227
0.19378018 105.12662506 14.86892700 0.013089 0.017116 0.999768
1.17274380 105.33940887 14.66843510 0.119057 0.005461 0.992872
2.86542726 104.72814178 14.60756588 0.145461 -0.003331 0.989358
1.98956943 105.28134918 14.62662983 0.126056 0.005481 0.992008
2.79887557 105.23352051 14.60106754 0.133100 0.001100 0.991102
1.99852300 104.54171753 14.64667320 0.130369 0.001096 0.991465
2.50546288 104.49636841 14.62709808 0.140491 -0.003319 0.990076
1.87594509 105.29620361 14.62816620 0.128492 0.005491 0.991695
1.31131744 106.02511597 14.62109661 0.131221 0.007719 0.991323
1.33323085 106.87850189 14.59423447 0.127155 0.012163 0.991808
0.39705008 106.15077209 14.80005836 0.027675 0.021525 0.999385
1.16270876 106.13584900 14.64783478 0.112339 0.011997 0.993598
0.50137717 106.89497375 14.75804234 0.036161 0.023763 0.999063
1.07096791 106.91074371 14.64427376 0.098526 0.016241 0.995002
1.99042416 106.02877808 14.60620594 0.121734 0.009870 0.992514
2.74004912 106.10702515 14.58745289 0.114494 0.009814 0.993375
1.88079679 106.77017975 14.58783340 0.117402 0.014264 0.992982
2.89067984 106.94324493 14.56564808 0.100887 0.016272 0.994765
3.63453627 104.51227570 14.57894230 0.166785 -0.007942 0.985961
4.31255817 104.53568268 14.54976845 0.180592 -0.012653 0.983477
3.54852915 105.36826324 14.56680393 0.147635 -0.001110 0.989041
4.43416882 105.26620483 14.53114223 0.168990 -0.007939 0.985586
5.17020082 104.46015167 14.51480484 0.202846 -0.017588 0.979053
6.09791470 104.55692291 14.47369289 0.220278 -0.022623 0.975175
5.28532076 105.43885040 14.49187660 0.185042 -0.010344 0.982676
6.00000620 105.28121948 14.46448708 0.205100 -0.015236 0.978622
3.58558893 106.07519531 14.55219650 0.133389 0.005512 0.991048
4.47911119 106.15579224 14.51283264 0.152643 0.001114 0.988281
3.56882906 106.94853210 14.53680229 0.114990 0.012047 0.993294
4.46086121 107.02262878 14.49762249 0.133973 0.007750 0.990955
5.24076271 106.19161224 14.47988510 0.168617 -0.003395 0.985676
6.08789730 106.04859924 14.44661045 0.190334 -0.010382 0.981664
5.23946762 106.76187134 14.46942425 0.157685 0.001118 0.987489
6.11415052 107.02658844 14.42746353 0.170816 -0.001131 0.985302
1.29051423 107.63403320 14.57958698 0.117908 0.018733 0.992848
1.25101256 108.51442719 14.56252670 0.108952 0.023111 0.993778
0.38909107 107.70404053 14.75413609 0.027842 0.027842 0.999225
0.92464358 107.91783142 14.64509392 0.073889 0.024630 0.996962
0.33464366 108.61235046 14.73649788 0.023717 0.031966 0.999207
0.88221341 108.40087128 14.63990784 0.067199 0.028800 0.997324
1.94958830 107.78845978 14.55885220 0.110894 0.018665 0.993657
2.70843029 107.63685608 14.55002308 0.098944 0.020659 0.994879
2.01314402 108.49630737 14.53843784 0.104143 0.023021 0.994296
2.81727791 108.46885681 14.52544403 0.090116 0.024972 0.995618
1.22225940 109.34271240 14.54478455 0.100004 0.029671 0.994545
0.68662161 110.11661530 14.62545776 0.049850 0.037123 0.998067
1.26439989 110.23487091 14.51097298 0.100209 0.034137 0.994381
0.27491438 109.39882660 14.72355366 0.019591 0.036089 0.999156
0.39087775 110.16736603 14.67864227 0.028122 0.038538 0.998861
1.99097180 109.30709076 14.51667690 0.099786 0.029607 0.994568
2.90240741 109.15967560 14.50512505 0.085610 0.029259 0.995899
2.08111978 110.07379913 14.49420071 0.093050 0.033936 0.995083
2.71360707 110.03303528 14.48450375 0.081470 0.033674 0.996107
3.71754217 107.74134827 14.51587868 0.101320 0.018521 0.994681
4.35717583 107.72305298 14.48910046 0.117402 0.014264 0.992982
3.73719811 108.55683899 14.50000763 0.085436 0.024874 0.996033
4.34314680 108.52992249 14.47481728 0.101316 0.020699 0.994639
5.18340921 107.74965668 14.45358562 0.136443 0.009984 0.990598
6.07480192 107.69974518 14.41671848 0.155847 0.003364 0.987776
5.35159779 108.46940613 14.43318367 0.124975 0.014378 0.992056
5.96878386 108.47909546 14.40684128 0.139227 0.012252 0.990185
3.53364325 109.41767120 14.48729134 0.072053 0.031187 0.996913
4.37266302 109.33214569 14.45877266 0.085431 0.027035 0.995977
3.64333868 110.14273834 14.46561718 0.065480 0.035423 0.997225
4.53948832 110.11804199 14.43720818 0.072203 0.033407 0.996830
5.25988913 109.46952057 14.41862869 0.101747 0.025163 0.994492
6.07080698 109.23003387 14.38866901 0.125245 0.016625 0.991986
5.28345156 110.13591766 14.40534115 0.088142 0.029381 0.995675
6.03065157 110.08822632 14.37765980 0.111364 0.025360 0.993456
12.72417068 104.58606720 12.09426785 0.548349 -0.031768 0.835646
12.65438175 105.34673309 12.17668152 0.538324 -0.023286 0.842416
12.75133133 106.19139099 12.14869118 0.539823 -0.012238 0.841689
12.72531509 106.98033142 12.20240402 0.533028 -0.001349 0.846097
10.23025799 104.45274353 13.79664516 0.380381 -0.035293 0.924156
10.82831573 104.51927185 13.38997555 0.420762 -0.033183 0.906564
10.31825829 105.04169464 13.76315308 0.381787 -0.027364 0.923845
10.81210709 105.30585480 13.43686199 0.412481 -0.025039 0.910622
11.76557159 104.48560333 12.74638176 0.485132 -0.033973 0.873781
12.24791145 104.55809784 12.41925621 0.517465 -0.031569 0.855122
11.68940544 105.30950928 12.83603954 0.472210 -0.022871 0.881189
12.26591206 105.27753448 12.43965244 0.512757 -0.023122 0.858222
11.33199310 104.60343933 13.04876328 0.452864 -0.033595 0.890946
11.31392193 105.32522583 13.09397793 0.446537 -0.025326 0.894407
10.32199287 105.99703217 13.80405521 0.375114 -0.016758 0.926827
10.89559174 106.14399719 13.41779995 0.411789 -0.014380 0.911166
10.40275955 107.07436371 13.79773521 0.370729 -0.003822 0.928733
10.78557110 106.95417786 13.53002644 0.398576 -0.006449 0.917112
11.76056099 106.16230774 12.82609081 0.471022 -0.014678 0.881999
12.22100258 106.16504669 12.51079178 0.502912 -0.012135 0.864253
11.75903320 106.78665161 12.85553932 0.467756 -0.006625 0.883833
12.37754154 106.89064026 12.43656445 0.508951 -0.004029 0.860786
11.40312195 106.18009949 13.07176113 0.448754 -0.014561 0.893537
11.38563156 106.92513275 13.11763573 0.439324 -0.003934 0.898320
12.73409653 107.52095795 12.22098255 0.527930 0.004051 0.849278
12.78057289 108.31282043 12.22516632 0.525174 0.014927 0.850864
10.92347431 107.65296936 13.46734428 0.403860 0.003871 0.914813
10.89805222 108.53297424 13.52479267 0.395143 0.011660 0.918546
11.76527977 107.67089844 12.89148521 0.461432 0.003966 0.887167
12.26777458 107.72978210 12.54993343 0.496272 0.006688 0.868141
11.86197186 108.46763611 12.86149120 0.461471 0.014629 0.887035
12.31293869 108.51856995 12.55487633 0.491293 0.014806 0.870868
11.44328213 107.75066376 13.11569691 0.439324 0.003934 0.898320
11.44249344 108.61346436 13.15548706 0.430757 0.014490 0.902351
10.87801838 109.36898041 13.57654762 0.386275 0.022110 0.922118
10.90379238 110.04415131 13.58960629 0.382679 0.030040 0.923393
11.76700020 109.30753326 12.96475983 0.449766 0.022688 0.892858
12.32518387 109.31487274 12.58271313 0.488236 0.025697 0.872333
11.75358009 110.08320618 13.00924015 0.443210 0.033475 0.895793
12.47245026 110.01853943 12.50995636 0.492760 0.034125 0.869496
11.45013237 109.31666565 13.18224525 0.427409 0.022495 0.903778
11.40511322 110.22290039 13.25431061 0.417567 0.033140 0.908042
6.84064770 104.61121368 14.44120598 0.237630 -0.025331 0.971025
7.56900454 104.37454987 14.41469383 0.258819 -0.033119 0.965358
6.89979649 105.42140198 14.42375851 0.222038 -0.020185 0.974829
7.63916206 105.36125946 14.39352417 0.239904 -0.025317 0.970466
8.38454914 104.45909882 14.37856293 0.274707 -0.036047 0.960852
9.21702671 104.45616150 14.36006737 0.313726 -0.036834 0.948799
8.40268898 105.29203796 14.36942768 0.266334 -0.028229 0.963467
9.22966385 105.32617950 14.35280418 0.310086 -0.026364 0.950343
6.81484890 106.09174347 14.41499805 0.206877 -0.012857 0.978282
7.69021416 106.14440918 14.37691879 0.224824 -0.017843 0.974236
6.83956146 107.04250336 14.39641857 0.187267 -0.005744 0.982292
7.50531149 106.90547180 14.37416267 0.209119 -0.010514 0.977834
8.34406471 106.00874329 14.36480904 0.258754 -0.018222 0.965771
9.29153538 106.25318146 14.34410858 0.307217 -0.016169 0.951502
8.38874340 106.93494415 14.35646057 0.256380 -0.008426 0.966539
9.16971302 106.93183136 14.34104633 0.296234 -0.008604 0.955077
9.92147541 104.55848694 14.01298618 0.358413 -0.034936 0.932909
9.88976097 105.43024445 14.07436848 0.348918 -0.024284 0.936839
9.91380501 106.19580841 14.09272480 0.346482 -0.016499 0.937912
9.86976528 106.82431793 14.15148544 0.337994 -0.008795 0.941107
6.87038946 107.70215607 14.38294697 0.175594 -0.001133 0.984462
7.60941505 107.66820526 14.36595535 0.210402 -0.001162 0.977614
6.76113701 108.63298035 14.37494850 0.159082 0.010154 0.987213
7.59305143 108.58843231 14.35886192 0.203711 0.010477 0.978975
8.47978306 107.77325439 14.34790325 0.256844 0.001195 0.966452
9.14064598 107.62624359 14.33602333 0.291258 -0.001219 0.956644
8.52489758 108.49040985 14.34123039 0.253538 0.008411 0.967289
9.15775585 108.45503235 14.32900429 0.287450 0.008562 0.957757
6.82469177 109.32127380 14.36814404 0.157923 0.017042 0.987304
7.62548065 109.33391571 14.35221100 0.200136 0.017556 0.979611
6.84047508 109.97637177 14.36255169 0.154149 0.026263 0.987698
7.58442163 110.15225983 14.34642601 0.193785 0.027013 0.980672
8.41843605 109.23040009 14.33736992 0.243910 0.018023 0.969630
9.17925167 109.22380829 14.32238197 0.284249 0.018458 0.958573
8.43227291 110.13513947 14.32980347 0.238172 0.027807 0.970825
9.16012192 110.12533569 14.31549454 0.275753 0.028441 0.960808
9.92949963 107.81251526 14.15551949 0.333406 0.003746 0.942776
10.01219654 108.41094971 14.12609100 0.335766 0.008803 0.941904
10.41654873 108.79529572 13.86657619 0.358773 0.014044 0.933319
9.87509727 109.23557281 14.25752449 0.319933 0.018820 0.947253
10.51031876 109.38092804 13.82898140 0.361305 0.021858 0.932192
10.00826645 110.15000153 14.20789623 0.322924 0.029126 0.945977
10.51774120 110.16681671 13.85964870 0.357609 0.029693 0.933399
0.63735861 111.01614380 14.60712719 0.045609 0.041367 0.998102
1.40913916 110.96517944 14.48134518 0.098227 0.038629 0.994414
0.47676209 111.73434448 14.61493397 0.034790 0.045332 0.998366
1.24571097 111.59451294 14.47611713 0.091445 0.042968 0.994883
0.34726501 110.95702362 14.66261864 0.026036 0.042699 0.998749
0.19460590 111.58638000 14.67166710 0.015525 0.046576 0.998794
1.87218988 111.06949615 14.47058201 0.088886 0.038407 0.995301
2.87246299 110.79524994 14.46097469 0.074817 0.037951 0.996475
2.08025837 111.61611176 14.45209980 0.082154 0.042720 0.995704
2.72097230 111.64659119 14.44031715 0.072798 0.044548 0.996351
0.47313082 112.52893066 14.58187389 0.034647 0.043047 0.998472
1.29893184 112.47893524 14.43496418 0.091454 0.040769 0.994974
0.46943823 113.31322479 14.52941895 0.034165 0.025883 0.999081
1.11656189 113.24645996 14.41513538 0.080787 0.026929 0.996368
0.26224592 112.35864258 14.63212585 0.019787 0.046863 0.998705
2.06003761 112.51669312 14.42061996 0.079630 0.042542 0.995916
2.81492305 112.59057617 14.40392971 0.065880 0.044280 0.996845
1.98027611 113.37035370 14.36416721 0.080618 0.024723 0.996438
2.88800859 113.31513214 14.35383606 0.064937 0.028743 0.997475
3.59305668 110.84828949 14.44721031 0.061193 0.039722 0.997335
4.36006403 110.86141968 14.43110657 0.052178 0.041530 0.997774
3.52999425 111.73154449 14.42417049 0.056897 0.046162 0.997312
4.45584583 111.72383118 14.40855694 0.041363 0.047726 0.998004
5.19149303 110.83946991 14.39626598 0.072353 0.035637 0.996742
5.91798019 110.85903168 14.37367249 0.100429 0.034212 0.994356
5.16422081 111.78630829 14.38109875 0.054528 0.043837 0.997549
6.16044569 111.74466705 14.36174107 0.106381 0.045912 0.993265
3.62212896 112.54928589 14.39421272 0.052391 0.045976 0.997568
4.43937588 112.45415497 14.38797951 0.037123 0.049850 0.998067
3.62341833 113.31021118 14.34277344 0.051649 0.030568 0.998197
4.33223629 113.30715179 14.33199692 0.038694 0.032419 0.998725
5.18428278 112.55071259 14.36059952 0.050463 0.050463 0.997450
6.07185221 112.60557556 14.34009838 0.097047 0.052428 0.993898
5.29656792 113.31266785 14.26344776 0.058686 0.035211 0.997655
6.04874325 113.24204254 14.23464584 0.098443 0.038714 0.994389
0.46782902 114.13946533 14.47374058 0.035654 0.009168 0.999322
1.21628869 114.04956818 14.34241867 0.088608 0.007473 0.996039
0.37482917 115.02368927 14.43016720 0.029427 -0.011162 0.999505
1.22955751 114.90338135 14.28214073 0.088795 -0.009628 0.996003
1.97190213 114.11907196 14.31370258 0.081726 0.007430 0.996627
2.79321504 113.99414825 14.30941868 0.066373 0.013696 0.997701
1.88954902 114.90319824 14.26199055 0.084010 -0.009571 0.996419
2.92111874 114.96229553 14.24201298 0.065824 -0.007314 0.997804
0.34165949 115.71617889 14.38461781 0.025728 -0.027786 0.999283
1.32007098 115.66767883 14.21915340 0.094825 -0.027249 0.995121
0.44578248 116.46216583 14.31487370 0.034717 -0.045237 0.998373
1.18218124 116.58669281 14.17680168 0.087064 -0.045185 0.995177
2.05201626 115.71562195 14.20457363 0.080791 -0.024776 0.996423
2.93710923 115.75360107 14.18829250 0.064807 -0.024435 0.997599
1.98302341 116.49813843 14.15276241 0.082154 -0.042720 0.995704
2.77706528 116.56929016 14.13565159 0.068184 -0.042209 0.996780
3.56036425 114.18694305 14.28450394 0.052992 0.011430 0.998530
4.51566362 114.14263916 14.28658962 0.044510 0.015527 0.998888
3.66189909 114.85882568 14.23752880 0.052451 -0.003085 0.998619
4.36759329 114.91487885 14.24253654 0.052343 0.001026 0.998629
5.26901913 114.09938812 14.26068783 0.057845 0.022086 0.998081
5.98389435 114.19125366 14.09845924 0.098948 0.018485 0.994921
5.17623186 114.84860992 14.26261520 0.054952 0.007258 0.998463
6.03948975 114.96241760 14.07713127 0.102383 0.005389 0.994730
3.53157210 115.56793213 14.19162941 0.055519 -0.017808 0.998299
4.49663496 115.65882111 14.20566082 0.059574 -0.013587 0.998131
3.55188012 116.69818115 14.13110542 0.065751 -0.039882 0.997039
4.36355400 116.50534058 14.15796947 0.067338 -0.030997 0.997249
5.14255333 115.57337952 14.22342587 0.061533 -0.007300 0.998078
5.98337841 115.70797729 14.08128071 0.100248 -0.007546 0.994934
5.12620258 116.53356171 14.17208672 0.071601 -0.026717 0.997075
5.98203373 116.41939545 14.07347298 0.099159 -0.020703 0.994856
10.93424416 110.85681915 13.60571480 0.378984 0.040652 0.924510
10.81178284 111.74456024 13.72999001 0.363475 0.048551 0.930338
